ply
format ascii 1.0
comment PCL generated
element vertex 1418
property float x
property float y
property float z
property float intensity
element camera 0
property float view_px
property float view_py
property float view_pz
property float x_axisx
property float x_axisy
property float x_axisz
property float y_axisx
property float y_axisy
property float y_axisz
property float z_axisx
property float z_axisy
property float z_axisz
property float focal
property float scalex
property float scaley
property float centerx
property float centery
property int viewportx
property int viewporty
property float k1
property float k2
end_header
-1.6172078 3.6753745 -0.62313122 1
-0.73048735 0.44236165 -0.54949486 1
0.61324614 3.8077595 -0.59858608 4
-0.29804298 0.60811114 -0.58361566 6
2.6518703 2.9747109 -0.56149459 10
0.1163573 0.6480478 -0.58687222 2
-3.8537211 2.6342416 -0.55588514 14
0.57843423 0.59081984 -0.58177894 14
-1.5765753 3.684809 -0.62268066 2
-0.72932279 0.45212647 -0.55419499 1
0.65396768 3.8086462 -0.59879202 12
-0.28845805 0.60596043 -0.57921165 4
2.6944556 2.9609501 -0.56079197 6
0.12436895 0.64913148 -0.58854544 4
-3.8190343 2.6680489 -0.55799204 1
0.5819872 0.5817616 -0.57694829 1
-1.5428116 3.7118342 -0.62501395 8
-0.71415091 0.45328149 -0.54825938 1
0.69304371 3.7958617 -0.59686315 6
-0.28410205 0.61507708 -0.58556509 2
2.7395151 2.9483688 -0.56054431 1
0.132557 0.65014279 -0.59015846 6
-3.7688644 2.6918669 -0.55833805 1
0.59073544 0.57784271 -0.57722914 1
-1.4969887 3.7113202 -0.62259769 1
-0.72745019 0.47282448 -0.56433874 10
0.73401749 3.791373 -0.5960412 6
-0.27667335 0.61801738 -0.58602613 1
2.7798932 2.9293859 -0.55930555 10
0.14136997 0.6532532 -0.59372616 8
-3.7613847 2.7472637 -0.56514668 12
0.60042065 0.57463503 -0.57831299 1
-1.4578508 3.7284124 -0.62310767 8
-0.71829891 0.47821066 -0.56328648 10
0.77584171 3.7893333 -0.59540385 12
-0.27002692 0.62300903 -0.58842802 1
2.828753 2.9181185 -0.55968285 2
0.14786315 0.64534408 -0.58727545 1
-3.7252698 2.7828927 -0.56781441 1
0.60930771 0.57035744 -0.57851249 10
-1.4158963 3.7397459 -0.62269473 4
-0.71732217 0.48924822 -0.56879622 12
0.8159759 3.7781789 -0.59292352 1
-0 0 -0 0
2.883177 2.9111795 -0.56096697 10
0.1555654 0.64288145 -0.58572614 1
-3.7073474 2.8331358 -0.5729906 14
0.61372924 0.56168777 -0.57442528 12
-1.371742 3.746628 -0.62172788 2
-0.7140252 0.49897969 -0.57270724 8
0.8599087 3.7824485 -0.59280413 10
-0.25536668 0.63081652 -0.59123653 6
2.9285731 2.8937073 -0.56030697 10
0.16606078 0.65124333 -0.59406644 1
-3.6439447 2.8488958 -0.57071829 1
0.62550199 0.55943793 -0.57716423 14
-1.3330636 3.7698817 -0.62381142 12
-0.7095114 0.5080328 -0.57581818 1
0.90359312 3.7817504 -0.59192443 8
-0.24741703 0.6335445 -0.59169954 6
2.9647608 2.8658268 -0.55780566 1
0.17275824 0.64424616 -0.58848256 1
-3.6059928 2.8843884 -0.57229835 1
0.63178414 0.55201262 -0.57482159 12
-1.2849009 3.767679 -0.6216622 1
-0.69576675 0.51041633 -0.5714969 1
0.94743097 3.777452 -0.59072042 4
-0.23814097 0.63295829 -0.58928913 4
3.0345812 2.8687468 -0.56141824 12
0.18000802 0.63928372 -0.58492601 4
-3.5870068 2.9357095 -0.57726294 12
0.64082956 0.54689252 -0.57501829 1
-1.2370417 3.7664618 -0.61939305 1
-0.6850462 0.51483119 -0.56965047 1
0.9928174 3.7752569 -0.59029877 10
-0.22923917 0.6332646 -0.58792973 2
3.0769532 2.8436978 -0.55970722 6
0.19073887 0.64599162 -0.5923872 6
-3.5682483 2.9880593 -0.5830034 1
0.6564849 0.54723209 -0.58110827 1
-1.2052147 3.8157082 -0.62476271 8
-0.67622709 0.52059346 -0.56953967 10
1.0354317 3.7608969 -0.58869284 1
-0.21996218 0.63246113 -0.58550817 1
3.0915413 2.7932153 -0.55274814 1
0.19842742 0.64164805 -0.59004259 8
-3.4909029 2.9911022 -0.57985032 1
0.65773964 0.53561562 -0.57453871 1
-1.1627966 3.8336992 -0.62419844 4
-0.6701805 0.52853411 -0.57207173 12
1.0817291 3.760288 -0.58986896 8
-0.21145299 0.63387603 -0.58483571 1
3.1284208 2.7638905 -0.54972756 1
0 0 -0 0
-0 0 -0 0
0.67244893 0.53484946 -0.57972455 12
-1.1218355 3.8568501 -0.62483341 12
-0.66108185 0.5341478 -0.57206392 10
1.1263052 3.7534475 -0.59028459 4
-0.19984484 0.62559193 -0.57517463 1
3.2166314 2.7790587 -0.55541265 1
0.21204482 0.62873352 -0.58108109 1
-3.4004164 3.0502574 -0.58234352 1
0.6735782 0.52302474 -0.57314378 14
-1.0787317 3.8721814 -0.62543488 1
-0.65007395 0.53820628 -0.57015795 1
1.1703113 3.7447631 -0.5900647 1
-0.19437964 0.63650072 -0.58335954 6
3.2807195 2.7713318 -0.55662632 16
0.22495595 0.64047182 -0.59320563 1
-3.4016049 3.1216841 -0.59037608 12
0.67556745 0.51196402 -0.56736356 12
-1.0299875 3.866894 -0.62350565 10
-0.64289594 0.5454061 -0.57145351 1
1.221163 3.7567821 -0.59277034 8
-0.18611324 0.63864851 -0.58370793 6
3.3222826 2.743345 -0.55392516 8
0.23086829 0.63176388 -0.58662635 2
-3.3442545 3.1393535 -0.58857232 1
0.68341857 0.50542402 -0.56652254 1
-0.98355454 3.869632 -0.62309563 6
-0.63754964 0.55415267 -0.57437575 1
1.255708 3.7190089 -0.58747905 1
-0.17603473 0.63415742 -0.5781281 2
3.3498683 2.7033775 -0.54899406 1
0.23903641 0.62926614 -0.58603919 4
-3.3128834 3.1805937 -0.59174073 12
0.70134991 0.50614357 -0.57390845 1
-0.93950665 3.8819635 -0.62409371 4
-0.62009078 0.55207098 -0.56633031 12
1.3032907 3.7201481 -0.58833903 10
-0.16841622 0.6382401 -0.58045369 2
3.3665321 2.6547103 -0.54252672 1
0.24797945 0.62875843 -0.58744299 8
-3.2407663 3.1817906 -0.58775997 1
0.70507962 0.49651086 -0.56961548 1
-0.89478421 3.8909051 -0.62441957 10
-0.6192866 0.56453353 -0.57360816 14
1.3469448 3.7095523 -0.58741909 6
-0.16051403 0.6411624 -0.58174425 1
3.4604111 2.6658256 -0.54857898 1
0.25602984 0.62609929 -0.58682936 10
-3.1879601 3.2006595 -0.58759701 1
0.71789777 0.49332127 -0.57276797 8
-0.8486104 3.8920691 -0.62344617 1
-0.61017132 0.5693503 -0.5733127 12
1.3877217 3.6915731 -0.58539432 6
-0.15365702 0.64839566 -0.58695537 1
3.5025902 2.6358347 -0.54639333 14
0.26088306 0.61612463 -0.57927155 1
-3.1653419 3.2495296 -0.59312099 10
0.72755325 0.48789835 -0.57343751 14
-0.80697066 3.9114854 -0.62520915 8
-0.59750807 0.57057011 -0.5696016 8
1.4241765 3.6635792 -0.58190298 14
-0 0 -0 0
3.5634341 2.6196976 -0.54728061 6
0.27227384 0.62178808 -0.58639199 1
-3.107312 3.2615054 -0.59210366 1
0.73499572 0.48103857 -0.57248175 14
-0.76428449 3.9245789 -0.6259051 6
-0.59025836 0.57677168 -0.57091314 1
1.4647144 3.6478126 -0.58032507 1
-0.13686101 0.64945048 -0.58541268 6
3.6022184 2.5873959 -0.54488409 1
0.28141648 0.62216628 -0.58857131 1
-3.0253632 3.2462239 -0.58632773 1
0.73911119 0.47213373 -0.5690999 14
-0.72242445 3.9400444 -0.62699509 4
-0.58388495 0.58378088 -0.5729776 1
1.5164379 3.660634 -0.5832659 14
-0.12898141 0.65199935 -0.58663696 6
3.6267292 2.5459657 -0.54054594 1
0.28573006 0.61213475 -0.58097363 2
-3.0157528 3.3071771 -0.59417063 6
0.7462371 0.46528471 -0.5681985 1
-0.67871779 3.9432974 -0.6262992 10
-0.57062697 0.5837006 -0.56807452 1
1.5581325 3.6498034 -0.58247751 8
-0.12033224 0.65001291 -0.58388996 4
3.7006137 2.539547 -0.5436883 1
0.29568094 0.61437798 -0.58516222 6
-2.9651837 3.3223133 -0.59369689 1
0.7532286 0.45843598 -0.56730521 1
-0.63604653 3.9488921 -0.62613708 2
-0.56688118 0.59318447 -0.572519 12
1.6040426 3.649601 -0.58335203 4
-0.11260849 0.6523394 -0.5851025 2
3.7408979 2.5101669 -0.54189861 10
0.30463213 0.61445642 -0.58741093 8
-2.927959 3.3508184 -0.5955528 8
0.75897735 0.45096779 -0.56562668 1
-0.59095055 3.9348695 -0.62316698 10
-0.56476665 0.60436589 -0.57868016 12
1.6452752 3.6396358 -0.58262539 4
-0.10390727 0.64791667 -0.58033025 1
3.7867632 2.4849665 -0.54097056 8
0.31250083 0.61241704 -0.58771497 10
-2.8765669 3.3614762 -0.59425503 1
0.7590946 0.44038337 -0.55992758 10
-0.54868174 3.9334495 -0.62235314 10
-0.55593842 0.60823089 -0.57795322 10
1.679093 3.6146431 -0.5794484 1
-0.097289369 0.65559411 -0.58647776 1
3.8245966 2.4548633 -0.53894234 1
0.31440946 0.59921581 -0.57731915 1
-2.8172047 3.3607366 -0.59112996 1
0.76667809 0.43434623 -0.55989653 12
-0.50833279 3.9403179 -0.6228627 2
-0.54803914 0.61275256 -0.57811105 6
1.7025446 3.5694492 -0.5730527 1
-0.090228282 0.65988016 -0.58959931 1
3.8530104 2.4193194 -0.53550214 1
0.32568586 0.60420561 -0.58443695 1
-2.7982605 3.4070106 -0.59633678 10
0.76413995 0.4228352 -0.55265063 12
-0.46799648 3.9422829 -0.62267512 12
-0.53781193 0.61427069 -0.57570028 1
1.7644378 3.6057966 -0.5797655 1
-0.083105594 0.66296434 -0.59171611 2
3.9162636 2.4058981 -0.53692704 4
0.33753395 0.61013055 -0.5924834 1
-2.7521095 3.419255 -0.59586805 1
0.77028072 0.41639987 -0.55181849 10
-0.42833859 3.9422734 -0.62225473 10
-0.53253138 0.62111551 -0.57847202 1
0 0 -0 0
-0.075580329 0.66151071 -0.58983177 2
3.9625976 2.3821795 -0.53610599 1
0.33869264 0.59707844 -0.58205199 1
-2.7121081 3.437443 -0.59667194 6
0.76165599 0.40235496 -0.54062885 1
-0.3905749 3.9521282 -0.62332356 4
-0.52022421 0.61938399 -0.57341301 1
1.8080888 3.5196614 -0.56815773 1
-0.068582565 0.66331857 -0.59091949 6
3.9839411 2.3442736 -0.53198016 1
0.34635228 0.59602392 -0.58327061 4
-2.6782007 3.461678 -0.59860831 8
0.77530718 0.40033475 -0.54540992 1
-0.3517786 3.9423699 -0.62129927 16
-0.51439178 0.62493783 -0.57524151 12
1.879829 3.5762894 -0.57882732 1
-0.061266739 0.66055918 -0.58803934 4
4.0586567 2.3382499 -0.53516936 4
0.3579841 0.60185885 -0.59125763 8
-2.6357627 3.4732332 -0.59850323 1
0.77866799 0.39312625 -0.54303247 1
-0.31603235 3.957278 -0.62322944 10
-0.50941646 0.63130212 -0.57790005 10
0 0 -0 0
-0.053855423 0.65435541 -0.58217251 2
4.0797939 2.3020229 -0.53149039 1
0.36245027 0.5958665 -0.58763671 8
-2.602262 3.4943724 -0.59999633 4
0 0 -0 0
-0.27968568 3.9540596 -0.62236816 4
-0.49772564 0.62891787 -0.57266194 10
1.9369032 3.5290377 -0.57508415 1
-0.04762581 0.6603722 -0.58725232 1
4.1026525 2.2680435 -0.5282287 1
0.3715128 0.59771854 -0.59176928 10
-2.5766108 3.5240939 -0.60290051 6
0 0 -0 0
-0.24441193 3.9519429 -0.62167019 14
-0.49081102 0.6320641 -0.57258672 8
1.9868333 3.5473006 -0.5801729 1
-0.041107133 0.66073817 -0.5873332 1
4.1652164 2.2569983 -0.53029877 6
0 0 -0 0
-2.5317686 3.525135 -0.60092694 1
0 0 -0 0
-0.20982771 3.9405744 -0.61957622 12
-0.48258173 0.63308722 -0.57073259 4
2.0067067 3.5139873 -0.5767827 1
-0.035101108 0.66665077 -0.5923689 1
4.2008915 2.2323236 -0.52898097 1
0.38116157 0.58886874 -0.58751547 1
-2.4727314 3.5031025 -0.59507364 1
0 0 -0 0
-0.1771522 3.9421787 -0.61957622 1
-0.47969899 0.64073515 -0.57494128 1
2.0296314 3.4889266 -0.57438523 1
-0.029087756 0.66916555 -0.59438336 1
4.2211199 2.2011092 -0.52590603 1
0.39160883 0.59370124 -0.59455049 1
-2.4687631 3.556443 -0.60213166 8
0 0 -0 0
-0.14589621 3.9449527 -0.61973995 10
-0.47477818 0.64529097 -0.57650179 1
2.0754273 3.5052955 -0.57845968 8
-0.023003353 0.66270775 -0.58836341 1
4.2430491 2.1724789 -0.52315384 1
0.3968192 0.5909062 -0.59387994 1
-2.4469361 3.582092 -0.60458297 6
0 0 -0 0
-0.11601093 3.9459665 -0.61960226 14
-0.46433464 0.64178121 -0.57101876 1
2.0929265 3.4760547 -0.57472366 1
-0.017516904 0.66406983 -0.58927786 1
4.2999563 2.1632969 -0.5248664 4
0.40371373 0.59108889 -0.59608841 2
-2.4145129 3.589509 -0.60413456 1
0 0 -0 0
-0.087736405 3.9482219 -0.61955905 8
-0.46483165 0.65287238 -0.57863754 10
2.1166086 3.4602141 -0.57288504 1
-0.01229093 0.66427976 -0.58917344 2
4.3107262 2.1324456 -0.52127296 1
0.40447569 0.58283031 -0.58967322 6
-2.3785093 3.5883522 -0.60235727 4
0 0 -0 0
-0.060929656 3.9443235 -0.61858618 2
-0.45638096 0.6509068 -0.5748024 10
2.1326411 3.4349012 -0.5693742 1
-0.0073651969 0.66557801 -0.59005255 2
4.337893 2.1115954 -0.52019483 1
0.41086173 0.58323109 -0.59191477 8
-2.3512685 3.5972142 -0.60236794 8
0 0 -0 0
-0.035639085 3.9343133 -0.61661619 12
-0.45244229 0.65467638 -0.5761953 10
2.1778593 3.4594429 -0.57407975 8
-0.0027279807 0.66795099 -0.59193766 4
4.3682256 2.0939202 -0.52008712 1
0.41699713 0.58372259 -0.59419996 10
-2.3308444 3.6138422 -0.60383523 8
0 0 -0 0
-0.012008258 3.9315355 -0.61587727 14
-0.44467789 0.65223819 -0.57225168 10
2.193244 3.4393806 -0.57140434 1
0.0016158696 0.66130078 -0.58587623 4
4.4138746 2.0851901 -0.52238625 8
0.4215388 0.58241683 -0.59462988 10
-2.2988212 3.6095281 -0.60173672 1
0 0 -0 0
0.0099806683 3.9167645 -0.61328238 12
-0.44475722 0.66062051 -0.57795113 8
2.2190423 3.4389176 -0.57206279 1
0.0056403778 0.66357559 -0.58780766 4
4.4330587 2.0656478 -0.52223426 1
0.42647389 0.58214635 -0.59608859 10
-2.2706261 3.6079164 -0.60018325 1
0 0 -0 0
0.030454261 3.912245 -0.61238146 6
-0.44102556 0.66279054 -0.57832628 8
2.2368944 3.4292846 -0.57119852 1
0.009335381 0.66357493 -0.58776134 2
4.4539795 2.0490582 -0.52273828 1
0.42905366 0.57919639 -0.59475601 12
-2.26419 3.638129 -0.60391843 6
0 0 -0 0
0.049311899 3.9076173 -0.61161733 1
-0.43562347 0.66171062 -0.57601345 6
2.2442713 3.4068396 -0.56820035 1
0.012674428 0.66129375 -0.58574921 2
4.476727 2.0353367 -0.52372777 1
0 0 -0 0
-2.2567756 3.6635964 -0.60695612 10
0 0 -0 0
0.06675037 3.9221909 -0.61386824 6
-0.43122241 0.66144145 -0.57453859 4
2.2762647 3.4250059 -0.57189131 10
0.015816947 0.66573972 -0.58970392 2
4.4727387 2.0117097 -0.5217846 1
0.41792557 0.55341768 -0.57128745 1
-2.2375779 3.6665936 -0.60628337 10
0 0 -0 0
0.082202256 3.9144967 -0.61264032 10
-0.42649737 0.6599443 -0.5721516 1
2.2928734 3.4229746 -0.57220531 6
0.018453527 0.66230154 -0.58672059 1
4.5385985 2.0217435 -0.52791464 8
0.42157829 0.55377978 -0.57297635 1
-2.2278132 3.6811559 -0.60770708 10
0 0 -0 0
0.096188687 3.9245656 -0.61419505 12
-0.42475322 0.66233093 -0.57324058 1
2.2988055 3.4083657 -0.57024962 4
0.020752491 0.6599865 -0.58473176 1
4.566843 2.0171554 -0.5295791 6
0.42917648 0.55983776 -0.58040631 1
-2.2130275 3.6830852 -0.60716802 8
0 0 -0 0
0.10787503 3.9183311 -0.6132676 10
-0.42592627 0.66861981 -0.57783681 1
2.3165231 3.4144156 -0.57173449 1
0.022767859 0.6599099 -0.58474326 1
4.5668492 2.0026956 -0.52755368 6
0.4315615 0.55964428 -0.58118665 1
-2.1994245 3.6825404 -0.60634315 4
0 0 -0 0
0.11799023 3.9269574 -0.61452162 8
-0.42350149 0.66859281 -0.57710516 1
2.3285592 3.4153221 -0.57211453 1
0.024520963 0.66209453 -0.58673215 1
4.5850239 1.9988461 -0.52729851 2
0.43648532 0.56334078 -0.58577639 1
-2.1834068 3.6730297 -0.60425735 1
0 0 -0 0
0.12561426 3.9208112 -0.61345738 8
-0.42140558 0.66837651 -0.5763455 1
2.3273652 3.4000392 -0.56968844 1
0.025881659 0.66315627 -0.58773816 1
4.5844789 1.9895689 -0.5242101 1
0.43968025 0.56544363 -0.58845878 1
-2.1780035 3.6761997 -0.60448116 1
0 0 -0 0
0.13144378 3.9251008 -0.61394709 6
-0.42159531 0.67103744 -0.57821035 1
2.3177989 3.3760676 -0.56562418 1
0.026796881 0.66199607 -0.58674371 1
4.5938787 1.9875536 -0.52149814 1
0.44186756 0.56688732 -0.59016258 1
-2.176419 3.6805525 -0.60512525 1
0 0 -0 0
0.13466731 3.9191134 -0.61267823 4
-0.42017525 0.67043853 -0.5773952 1
2.3420846 3.4045603 -0.57010591 1
0.027478959 0.66421592 -0.58873266 1
4.5776496 1.9774023 -0.51495206 1
0.44443828 0.56952906 -0.59279126 1
-2.1909342 3.7064283 -0.60962957 1
0 0 -0 0
0.13603806 3.9250727 -0.61312455 4
-0.4178212 0.66758823 -0.5747838 1
2.3251395 3.3766463 -0.5649519 1
0.027594518 0.66197354 -0.58673215 1
4.6083493 1.9904727 -0.51308542 1
0.44238526 0.56697977 -0.58968574 1
-2.1822577 3.6873415 -0.60705948 1
0 0 -0 0
0.13494314 3.9311388 -0.61343217 4
-0.41849262 0.66860914 -0.57565439 1
2.3365569 3.3941147 -0.5673871 1
0.027398948 0.66200209 -0.58670902 1
4.573586 1.9779208 -0.50518501 1
0.44428763 0.57019734 -0.59226149 1
-2.1957653 3.6999912 -0.60995996 1
0 0 -0 0
0.13137884 3.9313667 -0.61274564 6
-0.42024982 0.67042744 -0.57735378 1
2.3266926 3.3847156 -0.56525886 1
0.026843961 0.66315913 -0.58769184 1
4.6061935 1.9971776 -0.50633872 1
0.44226506 0.56901366 -0.59018415 1
-2.2016389 3.6964991 -0.60995996 1
0 0 -0 0
0.12572877 3.9286711 -0.61173499 6
-0.41985667 0.66790771 -0.57547534 1
2.3367865 3.4084399 -0.56866342 1
0.025762256 0.66098493 -0.58566839 1
4.584363 1.9953215 -0.50292259 2
0.4377569 0.56520605 -0.58539486 1
-2.2087531 3.692302 -0.60965949 1
0 0 -0 0
0.11866153 3.9378521 -0.61270654 8
-0.42311385 0.6703077 -0.57794744 1
2.3314879 3.4138539 -0.56893998 1
0.024431532 0.66217977 -0.58663964 1
4.599761 2.0123446 -0.50476146 4
0.43434611 0.56337732 -0.58260596 1
-2.214113 3.6822717 -0.60814285 1
0 0 -0 0
0.10917793 3.9233415 -0.61012733 10
-0.42417565 0.66839188 -0.57684273 1
2.3252764 3.4216583 -0.56949341 1
0.022664592 0.6622836 -0.58659333 1
4.5813103 2.0170512 -0.50404733 6
0.42989668 0.56077719 -0.57896465 1
-2.2338047 3.6930931 -0.6099717 8
0 0 -0 0
0.098841831 3.9429116 -0.61298496 10
-0.42431855 0.66422701 -0.57391757 1
2.3181193 3.4318316 -0.57046849 2
0.020445634 0.6590153 -0.58357614 1
4.5727944 2.0285652 -0.50523108 8
0.42654973 0.56014782 -0.57732135 1
-2.2418153 3.6814804 -0.6079284 10
0 0 -0 0
0.086114489 3.9402559 -0.61245555 12
-0.42938548 0.66701508 -0.57713091 1
2.3091815 3.4431605 -0.57144433 6
0.018218908 0.66812134 -0.5914712 1
4.5577908 2.0397387 -0.50633126 8
0.42291448 0.55967855 -0.57572526 1
-2.2636251 3.6892631 -0.60908246 10
0 0 -0 0
0.071740896 3.9405437 -0.61245555 8
-0.42823088 0.65941584 -0.57146561 1
2.2961462 3.4517834 -0.57195085 10
0.01529715 0.66487521 -0.588431 2
0 0 -0 0
0 0 -0 0
-2.2784102 3.6821468 -0.60778004 10
0 0 -0 0
0.055724386 3.9511793 -0.61406785 4
-0.43534794 0.66383713 -0.57632756 6
2.28069 3.4601519 -0.57225215 10
0.012118536 0.66500241 -0.58836126 2
4.5003862 2.0567186 -0.50705975 1
0.4264982 0.57499105 -0.58890879 10
-2.2922301 3.6703193 -0.60577703 6
0 0 -0 0
0.037832383 3.9410257 -0.6123867 1
-0.43745697 0.65994692 -0.57409531 8
2.2538874 3.4545455 -0.57008874 1
0.008628699 0.66625243 -0.58927375 2
4.4608035 2.0635283 -0.50652659 1
0.4267318 0.58153981 -0.59413934 10
-2.298085 3.6423745 -0.60113686 1
0 0 -0 0
0.018290497 3.9396932 -0.61208767 10
-0.44389394 0.66195357 -0.57708895 8
2.2192984 3.4397097 -0.56627625 1
0.004771051 0.66187823 -0.58520645 4
4.4270864 2.0751982 -0.50655794 1
0.4232153 0.58361721 -0.59461755 10
-2.322823 3.6410408 -0.60106212 1
0 0 -0 0
-0.0029032105 3.9605069 -0.61517334 14
-0.44793093 0.65972745 -0.57651848 10
2.2202885 3.4831321 -0.5718475 1
0.00066080783 0.664235 -0.58708924 4
4.4503736 2.1161299 -0.5130713 10
0.41806617 0.58398998 -0.59318519 10
-2.3370993 3.6197939 -0.59796035 1
0 0 -0 0
-0.025891202 3.9663959 -0.61581731 14
-0.45153704 0.6563257 -0.575028 10
2.2028964 3.5011106 -0.57310337 8
-0.0037683246 0.66432703 -0.58697337 2
4.4160399 2.1320264 -0.51272565 10
0.41133538 0.58260667 -0.58984989 8
-2.3748038 3.631006 -0.60041839 8
0 0 -0 0
-0.05063054 3.9736335 -0.61655182 8
-0.4574739 0.65574706 -0.57612813 10
2.1754677 3.5059268 -0.57202256 12
-0.008474187 0.66326171 -0.58586437 2
0 0 -0 0
0.40768552 0.58612233 -0.59125465 6
-2.4053991 3.6271319 -0.60067379 4
0 0 -0 0
-0.076801196 3.9673803 -0.61500871 2
-0.46439642 0.65596139 -0.57805765 10
2.1397419 3.499953 -0.5690847 1
-0.013557024 0.66665363 -0.588727 2
4.3327417 2.1620061 -0.51013345 1
0.40181223 0.58691806 -0.58978826 4
-2.4417017 3.6281509 -0.60201836 1
0 0 -0 0
-0.10498979 3.9801872 -0.61638135 10
-0.46379623 0.64505857 -0.57033008 1
2.1159291 3.5160644 -0.56972063 1
-0.018908331 0.66774088 -0.58961481 1
4.3331513 2.2005069 -0.51413995 8
0.40021583 0.59452814 -0.5950259 1
-2.4811995 3.6303456 -0.60375637 6
0 0 -0 0
-0.13462555 3.9868298 -0.61676288 12
-0.47481978 0.64977956 -0.5765698 1
2.1120133 3.5685081 -0.57613665 8
-0.024486702 0.66651642 -0.58852917 1
4.3073821 2.2272868 -0.51565903 10
0.3976585 0.60131896 -0.59932423 1
-2.5103796 3.6141052 -0.60262853 8
0 0 -0 0
-0.16636537 4.0094895 -0.6196596 4
-0.48039091 0.64637345 -0.57578295 1
2.0822136 3.5807531 -0.57595116 12
-0.030579628 0.67083049 -0.59242862 1
0 0 -0 0
0 0 -0 0
-2.5371745 3.5920024 -0.60045618 2
0 0 -0 0
-0.19825841 4.0007257 -0.61781591 6
-0.4854314 0.64178348 -0.57411033 1
2.0439091 3.5804396 -0.57384127 1
-0.036466721 0.66495496 -0.58740884 1
4.2219038 2.2664084 -0.51623905 1
0.37494048 0.58896792 -0.58208025 1
-2.5813842 3.591836 -0.60205317 1
0 0 -0 0
-0.23206221 4.0064297 -0.61832887 14
-0.49514699 0.64279699 -0.57763094 6
2.0103679 3.5907888 -0.57331008 1
-0.042828824 0.66463715 -0.58733904 1
4.2277961 2.3141575 -0.52299327 10
0.37294278 0.59787583 -0.58837241 10
-2.6047795 3.5605335 -0.59835589 1
0 0 -0 0
-0.26709524 4.0117726 -0.61883932 10
-0.49983588 0.63684404 -0.57501543 10
1.9900718 3.6274118 -0.57706451 14
-0.04916035 0.66090655 -0.58425856 2
0 0 -0 0
0.36281604 0.5941298 -0.58217746 8
-2.6582098 3.5676804 -0.60098886 6
0 0 -0 0
-0.30362493 4.0211763 -0.61996096 2
-0.50770181 0.63455278 -0.57584518 10
0 0 -0 0
-0.056344144 0.66610289 -0.58907837 4
4.1322708 2.3551762 -0.52317065 1
0.36381745 0.60912275 -0.59426975 8
-2.6805038 3.5309103 -0.59607208 1
0.78159076 0.3979114 -0.5438807 1
-0.34152487 4.0316567 -0.62116498 14
-0.5165292 0.63300937 -0.577492 12
1.9048628 3.6257586 -0.57247806 1
-0.063073352 0.66341347 -0.58689725 4
4.0975633 2.3849211 -0.52442688 8
0.35216317 0.60345089 -0.58615029 6
-2.7387197 3.539263 -0.5985449 6
0.78380543 0.40836856 -0.5500592 1
-0.37944999 4.0299168 -0.6203329 12
-0.5255394 0.63126254 -0.5790863 10
1.8869776 3.6751215 -0.57811052 10
-0.070604973 0.66738963 -0.59062845 6
0 0 -0 0
0.34388593 0.60372669 -0.58379179 2
-2.7862446 3.5310264 -0.59799522 6
0.77115953 0.41134328 -0.54593045 8
-0.41791314 4.0248151 -0.6188345 4
-0.53471971 0.62931448 -0.58062756 1
0 0 -0 0
-0.078111291 0.66905957 -0.59234011 2
3.9962664 2.428704 -0.52247787 1
0.34104779 0.61402577 -0.59108597 1
-2.8196912 3.5030944 -0.59410882 1
0.77517331 0.42344344 -0.55372214 12
-0.45933726 4.038435 -0.62006587 12
-0.53923535 0.62160879 -0.57693392 1
1.7974589 3.6749032 -0.57392585 1
-0.084671453 0.66169554 -0.58611757 1
3.973175 2.4685512 -0.52533859 8
0.32805046 0.60623437 -0.58100343 1
-2.8676825 3.4915352 -0.5931533 8
0.77667856 0.43458447 -0.55996329 12
-0.50130051 4.0471292 -0.62053615 10
-0.54786456 0.61839741 -0.57748866 6
1.7759085 3.7247653 -0.57979161 12
-0.092602745 0.66428435 -0.58881849 1
0 0 -0 0
0.31994194 0.60741311 -0.5796454 1
-2.9114013 3.4732301 -0.59150934 4
0.76909024 0.44086981 -0.55989832 12
-0.54275119 4.0434942 -0.61933774 2
-0.556611 0.61501813 -0.57797748 10
1.72667 3.7182527 -0.57689351 1
-0.099874392 0.66116756 -0.58659428 1
3.8683193 2.5126789 -0.52474207 1
0.31750578 0.619712 -0.5889746 10
-2.9536021 3.4516196 -0.59001398 1
0.76463115 0.44907042 -0.56229436 8
-0.58608311 4.0481057 -0.61977142 10
-0.56546599 0.61145854 -0.57841408 12
1.6783203 3.714119 -0.57447398 1
-0.10704312 0.6568343 -0.58338279 1
3.8605375 2.5644367 -0.53116816 10
0.30963841 0.6217705 -0.58867294 10
-2.9832385 3.414562 -0.58671826 1
0.76431805 0.45989999 -0.5679931 1
-0.63170767 4.0608816 -0.62183201 4
-0.57015592 0.60323715 -0.57455856 12
1.6516962 3.7599845 -0.57980227 6
-0.1152015 0.65797114 -0.58510393 4
3.8073101 2.5867527 -0.53143781 1
0.29669639 0.61347103 -0.5786714 6
-3.0554631 3.4245484 -0.59191805 2
0.75513953 0.46554404 -0.56731135 1
-0.6779846 4.0715446 -0.62394857 6
-0.57481039 0.59489888 -0.57071304 12
1.6109461 3.7758875 -0.58038074 8
-0.12249216 0.65345716 -0.58186048 4
3.7376213 2.5979922 -0.52908415 1
0.29120126 0.62054652 -0.58320135 4
-3.1157448 3.4186292 -0.59442401 2
0.74696833 0.47182819 -0.56737679 1
-0.72234625 4.0654926 -0.62366831 10
-0.58461332 0.59171498 -0.57200611 1
1.5642748 3.7792819 -0.57899487 16
-0.13179423 0.6588459 -0.58745944 6
3.7380953 2.6588705 -0.53628314 12
0.28453726 0.62560213 -0.58572137 1
-3.1667547 3.4004354 -0.59434354 8
0.73766917 0.4774546 -0.56652588 12
-0.77080637 4.0778069 -0.62622511 1
-0.59274054 0.58658397 -0.57157588 1
1.5139434 3.7740345 -0.57626975 1
-0.14040661 0.65971023 -0.58905745 6
3.6951666 2.6899092 -0.53715932 1
0.27767843 0.63071227 -0.58816051 1
-3.2123189 3.3745522 -0.59204429 1
0.73674506 0.48865622 -0.57204103 14
-0.81261301 4.0516305 -0.62289023 8
-0.60180938 0.58215386 -0.57194281 8
1.4752764 3.7987592 -0.57831502 16
-0.14667594 0.64947659 -0.58072245 1
3.6338856 2.7072217 -0.53553355 12
0.26749322 0.62849474 -0.58373284 1
-3.258219 3.3476815 -0.58907294 1
0.72832078 0.49505684 -0.57181066 12
-0.86168474 4.0598207 -0.62463164 6
-0.60648453 0.57328117 -0.56799251 10
1.4379835 3.8287265 -0.58156472 8
-0.15725991 0.65791571 -0.58908844 1
0 0 -0 0
0.25988948 0.63247925 -0.58517295 10
-3.3261676 3.3422167 -0.58965993 8
0.71872336 0.50069624 -0.57079792 8
-0.90686291 4.0471067 -0.62302691 4
-0.62118328 0.57359076 -0.57322526 14
1.3943535 3.8430455 -0.58270925 6
-0.16425955 0.6508652 -0.58361256 1
3.5305753 2.7529218 -0.53622895 1
0.25126204 0.63422573 -0.58474565 8
-3.3742547 3.3157427 -0.5869804 1
0.70895475 0.50621301 -0.56992328 1
-0.95420259 4.0425386 -0.62239587 10
-0.62679815 0.56532091 -0.56998116 14
1.3546121 3.8696711 -0.58540434 12
-0.17342213 0.65245402 -0.5860585 2
3.5099621 2.8000488 -0.54120433 14
0.24212022 0.63474661 -0.58343369 6
-3.3962348 3.2639217 -0.58044857 1
0.70709419 0.51751232 -0.57580453 1
-1.0034225 4.044641 -0.62257826 1
-0.63597685 0.56027263 -0.57016689 1
1.3141382 3.8960981 -0.58738762 1
-0.18107967 0.64837813 -0.58369249 4
3.4718573 2.8349981 -0.54241908 1
0.23269619 0.63408679 -0.58109152 2
-3.4458659 3.2382486 -0.57918388 1
0.69207793 0.51909584 -0.57087642 12
-1.0506127 4.035953 -0.6214202 10
-0.64513272 0.55509537 -0.57032716 1
1.2812334 3.9476748 -0.59275812 8
-0.18898585 0.64527613 -0.5823344 6
3.4399314 2.8756053 -0.54455572 14
0.22807696 0.64625365 -0.59030277 1
-3.5111649 3.2253907 -0.58084661 10
0.68923396 0.52963036 -0.57554716 14
-1.1008703 4.0365467 -0.62231445 6
-0.65623403 0.55138546 -0.57206762 1
1.233976 3.9564798 -0.59190983 4
-0.19691089 0.64214039 -0.58088362 6
3.364676 2.8786733 -0.54103285 1
0.21884847 0.64555645 -0.58767527 1
-3.5735383 3.2082543 -0.58166623 6
0.68233919 0.53711921 -0.57682103 14
-1.15127 4.0364742 -0.62349474 6
-0.66253775 0.54355425 -0.56959069 8
1.181996 3.9490519 -0.58887255 4
-0.20379862 0.6357097 -0.57642293 1
3.303427 2.8918183 -0.54046959 1
0 0 -0 0
-3.587893 3.1479259 -0.57414383 1
0.6704033 0.54059732 -0.57405472 8
-1.1949856 4.0146313 -0.62107581 12
-0.67266536 0.53876936 -0.57041299 12
1.1357341 3.9594612 -0.58880776 10
-0.2156166 0.64433372 -0.58562154 1
3.3057106 2.9603097 -0.55059421 16
0.20345367 0.65466136 -0.59233534 10
-3.6385138 3.1198928 -0.57220656 1
0.66414905 0.54862946 -0.57640612 1
-1.2432868 4.0094633 -0.62107712 1
-0.68371809 0.53463811 -0.57205927 12
1.0883429 3.9649763 -0.58824879 1
-0.22204715 0.63670051 -0.58010155 1
3.2553504 2.9819224 -0.55175352 1
0.19359398 0.65255678 -0.58880466 6
-3.7173533 3.1152389 -0.57447726 1
0.65777093 0.55656606 -0.57880527 1
-1.2807364 3.9713874 -0.6158883 1
-0.69271857 0.52883595 -0.57208371 12
1.0432022 3.9770062 -0.58882284 12
-0.23332264 0.64293182 -0.58728319 2
3.2223876 3.0191393 -0.55494535 14
0.18572886 0.65687531 -0.59112489 6
-3.7317822 3.0565915 -0.56700784 1
0.64476705 0.55870938 -0.57529157 1
-1.348864 4.0273476 -0.62520862 4
-0.70362216 0.52444232 -0.57378423 1
0.99705374 3.9841392 -0.58883011 6
-0.24230041 0.64261806 -0.58860242 4
3.1579537 3.0261359 -0.5519985 1
0.17702922 0.65783221 -0.59044021 2
-3.7869358 3.0318332 -0.56618065 6
0.63842946 0.56640369 -0.57751626 14
-1.3905042 4.0024185 -0.62205255 8
-0.71042037 0.5169822 -0.57217515 1
0.94943947 3.9834695 -0.58762735 8
-0.25085098 0.64114845 -0.58892995 6
3.0982738 3.0360558 -0.54938364 1
0.16819127 0.65758479 -0.5887242 1
-3.8064601 2.9790585 -0.56038219 1
0.63118273 0.57316303 -0.57881159 14
-1.4334884 3.9827473 -0.61977369 12
-0.71709311 0.50949615 -0.57056397 1
0.90585589 3.9981101 -0.58869576 10
-0.25891089 0.63854599 -0.58826876 6
3.071692 3.0773687 -0.55244839 14
0.15949553 0.65721577 -0.58698279 1
-3.8510511 2.9464681 -0.55847073 1
0.61850208 0.57474536 -0.57496542 12
-1.4831787 3.9821799 -0.6206066 1
-0.7277891 0.50490165 -0.57216042 12
0.860618 4.0035038 -0.5882706 1
-0 0 -0 0
3.030339 3.1032331 -0.5529418 1
0.1504306 0.65450281 -0.58327264 1
-3.9129863 2.9270618 -0.55900884 2
0.61312181 0.58292782 -0.57782096 8
-1.520879 3.9506755 -0.61674446 1
-0.73007941 0.49455869 -0.56722826 12
0.81875676 4.0228705 -0.58983529 10
-0 0 -0 0
2.9985189 3.1377597 -0.55529076 8
0.14441258 0.66489851 -0.59140277 8
-3.9348657 2.8781857 -0.55373114 12
0.60412341 0.58756423 -0.57729143 1
-1.5828038 3.9824576 -0.62289226 2
-0.74374557 0.49201068 -0.57118219 12
0.77623081 4.0373507 -0.59061682 6
-0.28064093 0.62611794 -0.58242339 1
2.9362578 3.1389496 -0.55191106 1
0.13485134 0.65857673 -0.58478445 6
-3.9691074 2.8392839 -0.5500657 12
0.59869415 0.59550297 -0.58012223 1
-1.6247622 3.9641311 -0.62133056 1
-0.74568814 0.48181424 -0.56622708 10
0.73385495 4.0497842 -0.59132856 4
-0.2891711 0.62536323 -0.58370364 2
2.8727949 3.1365228 -0.54818428 1
0.1281181 0.66543144 -0.58999079 4
-3.9867022 2.7894323 -0.54413968 1
0.59845662 0.6085878 -0.58804995 14
-1.6693544 3.9538305 -0.6210587 6
-0.74097735 0.46768218 -0.55647993 1
0.69151044 4.0587139 -0.59168559 12
-0.29561529 0.62043738 -0.58109301 4
2.8738298 3.2034869 -0.55680668 10
0.1193397 0.66107577 -0.58533561 2
-4.0155172 2.7486448 -0.53980839 18
0.58786482 0.61094379 -0.58574146 12
-1.7150736 3.947403 -0.62127495 2
-0.74454367 0.45917311 -0.55320853 1
0.65210819 4.0817294 -0.59432125 4
-0.30183661 0.61552519 -0.57847434 6
2.81937 3.2077425 -0.55451041 1
0.11245655 0.66665035 -0.58952516 1
-4.006227 2.6834409 -0.53055507 16
0.57659847 0.61212605 -0.58255029 12
-1.7673566 3.957078 -0.62389714 1
-0.74355459 0.4481667 -0.54676247 1
0.61023718 4.0851336 -0.59432679 10
-0.31249285 0.61983824 -0.58455551 8
2.7550006 3.1983407 -0.55012614 1
0.10575643 0.67326903 -0.59468031 1
-3.9992554 2.6219137 -0.52195263 1
0.57390851 0.62206727 -0.58787048 10
-1.7883157 3.8989959 -0.61561334 1
-0.74556971 0.43931183 -0.54276437 10
0.57037604 4.0968122 -0.59568667 12
-0 0 -0 0
2.7436066 3.2487936 -0.55605215 12
0 0 -0 0
-3.9983938 2.5665159 -0.51447159 1
0.56381589 0.62365687 -0.58546054 8
-1.8390418 3.9085069 -0.61776429 4
-0.73193401 0.42172867 -0.527668 8
0.530563 4.1036024 -0.59626156 2
-0.323484 0.60899848 -0.57834148 1
2.7150998 3.2781351 -0.55849302 1
0.091011629 0.67624587 -0.59602392 1
-3.9886775 2.5075154 -0.50616491 14
0.55473673 0.62591219 -0.58386731 1
-1.87956 3.8977635 -0.6167115 1
-0.73451191 0.41399205 -0.52454901 8
0.49312299 4.1232018 -0.59854597 10
-0.33329648 0.61222225 -0.58341956 1
2.6400809 3.2489557 -0.55114812 1
0.083516687 0.67483121 -0.59416896 2
-3.9775839 2.4498849 -0.4980883 1
0.54901916 0.63168353 -0.58567584 1
-1.8881189 3.8245082 -0.60581291 1
-0.74916792 0.41318518 -0.5301581 8
0.45590287 4.1394424 -0.60018528 12
-0.33744267 0.60534292 -0.57887942 1
2.6306272 3.2982695 -0.55722272 10
0.076899946 0.67894369 -0.59722543 4
-3.998332 2.4137433 -0.49426126 1
0.53302449 0.62517124 -0.57624489 1
-1.9507873 3.8632324 -0.61278391 8
-0.8075704 0.43599352 -0.56648207 1
0.41899776 4.1523361 -0.60117769 1
-0.34417236 0.60354352 -0.57913804 2
2.5800035 3.2944136 -0.55431205 1
0.070090123 0.67963856 -0.59727311 6
-4.003942 2.3701758 -0.48895636 12
0.53070873 0.63438088 -0.58140373 14
-1.988687 3.8541555 -0.61238045 1
-0.79637027 0.42104897 -0.55391192 1
0.3848899 4.1855097 -0.60508835 4
-0.35244215 0.60475308 -0.58229584 4
2.528764 3.2868593 -0.55097979 1
0.063397616 0.67915082 -0.59629774 4
-4.0574694 2.3562791 -0.48959297 1
0.51907635 0.63213426 -0.57616502 14
-2.0047212 3.8058231 -0.60592067 1
-0 0 -0 0
0.34901333 4.1887174 -0.60464817 4
-0.35587251 0.59804744 -0.5777666 4
2.5299473 3.3455434 -0.55883896 10
0.056947041 0.67858875 -0.59531051 2
-4.0390019 2.3022978 -0.48183286 1
0.51156694 0.63439751 -0.57519156 12
-2.0456722 3.8078079 -0.60749191 10
-0 0 -0 0
0.31542656 4.204844 -0.60612887 1
-0.36200121 0.59637004 -0.57804322 6
2.5021195 3.3643098 -0.56010443 10
0.05001457 0.66782099 -0.58542639 1
-4.0531082 2.2689075 -0.47812626 8
0.50884217 0.64220417 -0.57936662 10
-2.0855877 3.8100247 -0.60912591 1
-0 0 -0 0
0.282498 4.2131691 -0.6067614 1
-0.36791548 0.59475183 -0.57832915 8
2.4708378 3.3760846 -0.5602271 1
0.044405472 0.67050153 -0.58737731 1
-4.0557284 2.2310252 -0.47328609 1
0.49950969 0.64116144 -0.57568926 6
-2.1114507 3.7891586 -0.60700566 1
-0 0 -0 0
0.25162148 4.2315187 -0.60888624 4
-0 0 -0 0
2.4467361 3.3952196 -0.56166792 8
0.038881641 0.670865 -0.58735389 1
-4.0283709 2.1790278 -0.46505386 1
0.49051893 0.63983262 -0.57195944 1
-2.1337461 3.764931 -0.60411555 1
-0 0 -0 0
0.22118428 4.2317429 -0.60859919 6
-0.37530646 0.58590192 -0.57320702 1
2.4246099 3.4145231 -0.56316334 14
0.033556055 0.6700421 -0.58634329 1
-4.0814443 2.1723225 -0.46630123 1
0.48999068 0.64896405 -0.57772058 1
-2.1729643 3.7735541 -0.60640442 8
-0 0 -0 0
0.19325101 4.2524323 -0.61137128 1
-0.38109809 0.5855394 -0.57448071 1
2.3984864 3.4255106 -0.56331247 14
0.028718516 0.67367893 -0.58928108 1
-4.1629009 2.1817598 -0.47077852 2
0.48089841 0.64616066 -0.57301438 1
-2.195276 3.7557011 -0.60426527 1
-0 0 -0 0
0.16550377 4.2387438 -0.60923886 2
-0.38725799 0.58625883 -0.57672596 1
2.3711307 3.4317548 -0.56256598 1
0.023882663 0.67048734 -0.58630818 1
-4.1974277 2.1678321 -0.46995506 1
0.47365627 0.64503878 -0.56998324 1
-2.2151892 3.7373281 -0.60192323 1
-0 0 -0 0
0.14066526 4.2559819 -0.61158454 8
-0.39123878 0.58420306 -0.57612485 2
2.359365 3.4577818 -0.56508225 4
0.019679228 0.67741406 -0.59221858 2
-4.2723675 2.1761148 -0.47383767 1
0 0 -0 0
-2.220463 3.6980917 -0.59609461 1
-0 0 -0 0
0.11688596 4.2537308 -0.61115801 10
-0.39491749 0.58228147 -0.57556021 4
2.3379908 3.4668562 -0.56469917 12
0.015486852 0.67414373 -0.5892458 2
-4.3653193 2.1947489 -0.47985187 1
0.47160551 0.65788025 -0.57776457 12
-2.2654309 3.7284601 -0.60134786 8
-0 0 -0 0
0.095024511 4.2528009 -0.61087048 8
-0.39632457 0.57762533 -0.57218534 4
2.3196993 3.4773116 -0.5646444 14
0.01172934 0.6753493 -0.59023279 2
-4.3614554 2.1663601 -0.47543442 1
0.47029421 0.66301531 -0.58071953 12
-2.2811415 3.7138844 -0.59921205 8
-0 0 -0 0
0.075288631 4.2621169 -0.61207533 4
-0.40335414 0.5817343 -0.57738465 6
2.3037133 3.4879229 -0.5646444 14
0.0081787109 0.66749442 -0.58332372 4
-4.3980103 2.160358 -0.47569832 8
0.46577275 0.66294694 -0.57928669 12
-2.3028421 3.7129357 -0.59926957 2
-0 0 -0 0
0.057471029 4.2817192 -0.61469746 1
-0.40346512 0.57644165 -0.57313806 6
2.2795022 3.4825053 -0.5621621 1
0.0051493808 0.6720531 -0.58726001 4
-4.4095039 2.1441698 -0.47359213 4
0.45949429 0.65964854 -0.57520527 10
-2.3228285 3.7129645 -0.59932053 1
-0 0 -0 0
0.041171595 4.2656064 -0.61212963 8
-0.41061682 0.58176124 -0.57937175 6
2.2504766 3.4659495 -0.55807459 1
0.0024248704 0.67772645 -0.59218317 4
-4.4279819 2.1338859 -0.47260115 2
0.46051908 0.66616452 -0.57979566 10
-2.3410943 3.713989 -0.59944159 1
-0 0 -0 0
0.027081935 4.2627912 -0.61140579 12
-0.41007495 0.57677388 -0.57525158 6
2.2627559 3.5093505 -0.56389618 1
2.3540117e-05 0.67437303 -0.58918703 2
-4.4170856 2.112129 -0.46894038 1
0.45837289 0.66748351 -0.57997936 10
-2.3472157 3.6997516 -0.59707695 1
-0 0 -0 0
0.015065927 4.2733088 -0.61244899 14
-0.41393107 0.57859761 -0.57780439 8
2.254858 3.5179615 -0.56429768 4
-0.0019925903 0.67554092 -0.59012669 2
-4.4252768 2.1022084 -0.46777278 1
0.45931712 0.6726253 -0.58361542 10
-2.3609939 3.7017291 -0.59721935 1
-0 0 -0 0
0.0051571229 4.2823272 -0.61312795 14
-0.41544375 0.57772368 -0.57759333 6
2.2471001 3.5228868 -0.56451643 8
-0.0036135663 0.67220658 -0.5870958 2
-4.4336991 2.0951231 -0.46717343 1
0.45576414 0.6705339 -0.58109343 10
-2.3568122 3.6798544 -0.59347373 1
-0 0 -0 0
-0.0026907471 4.2824469 -0.61230582 14
-0.41526335 0.57511896 -0.57556653 6
2.2371817 3.5203331 -0.56387639 12
-0.0048623253 0.67454058 -0.58897507 2
-4.4220357 2.0814981 -0.46492618 1
0.45596671 0.67330617 -0.58288366 10
-2.3908556 3.7217004 -0.60004598 6
-0 0 -0 0
-0.0083139753 4.2914772 -0.61268079 14
-0.41884264 0.57833034 -0.57929707 8
2.237062 3.5291185 -0.56546456 14
-0.0057109334 0.67464703 -0.58884549 2
-4.4686155 2.0982807 -0.46944147 1
0.4551203 0.67387855 -0.58288366 10
-2.386837 3.7084663 -0.59769243 6
-0 0 -0 0
-0.011763908 4.2931147 -0.6117689 14
-0.41729727 0.57509708 -0.57649928 6
2.2397413 3.5378494 -0.56747544 12
-0.0061685084 0.67704773 -0.59065276 2
-4.4328971 2.0794315 -0.46586391 1
0.45392033 0.67326665 -0.58195311 10
-2.3992333 3.7252972 -0.60012597 6
-0 0 -0 0
-0.012906224 4.299233 -0.61133987 14
-0.4140389 0.57016683 -0.57187217 6
2.2379534 3.5352991 -0.56809491 14
-0.0061716037 0.67609209 -0.58946615 2
-4.4499679 2.0885766 -0.46848309 1
0.45373064 0.67349243 -0.58183974 10
-2.392632 3.7171848 -0.59863961 6
-0 0 -0 0
-0.011785189 4.3008809 -0.610425 14
-0.42000914 0.57868576 -0.58047926 8
2.2452078 3.5429258 -0.57009321 14
-0.0057817209 0.67742205 -0.59022731 2
-4.4616976 2.0984557 -0.47111103 1
0.45319381 0.67251831 -0.58081037 10
-2.3976765 3.7316012 -0.60072988 6
-0 0 -0 0
-0.0084307287 4.3128877 -0.61128324 14
-0.41876915 0.5780589 -0.57962102 8
2.2479236 3.5394197 -0.57003766 12
-0.0049942466 0.67646188 -0.58905303 2
-4.4576254 2.1033847 -0.47191456 1
0.45448372 0.67329073 -0.58148533 10
-2.3895116 3.729763 -0.60000205 4
-0 0 -0 0
-0.0027852149 4.3129907 -0.61060572 14
-0.41787133 0.57864577 -0.57968336 8
2.2564609 3.5411053 -0.5704062 10
-0.0038745501 0.67887604 -0.59085721 2
-4.4338031 2.101234 -0.47036961 1
0.45693514 0.67478681 -0.58298969 10
-2.3947906 3.7528391 -0.60309982 4
-0 0 -0 0
0.0049700295 4.3145595 -0.61021364 14
-0.41187137 0.57286137 -0.57312536 6
2.2675617 3.5429521 -0.57068157 8
-0.0023543588 0.67446977 -0.58678871 2
-4.4562774 2.1234207 -0.47366327 1
0.45710659 0.67197907 -0.58094645 10
-2.376703 3.7431967 -0.60076082 1
-0 0 -0 0
0.014990746 4.3160858 -0.6099717 14
-0.41369653 0.57865387 -0.5779162 6
2.2771592 3.5387366 -0.56978154 2
-0.00049531349 0.67569768 -0.58766711 2
-4.4306426 2.1250763 -0.47168568 1
0.45975545 0.67193174 -0.58149195 10
-2.3545322 3.7308311 -0.59781694 1
-0 0 -0 0
0.027147142 4.3205347 -0.61022431 10
-0.41110691 0.57899535 -0.57704467 6
2.2867584 3.5309949 -0.56818527 1
0.0017159465 0.6780417 -0.5895412 4
-4.4538865 2.1525033 -0.47492522 1
0.45865494 0.66560155 -0.57676619 10
-2.3394411 3.7332847 -0.5970881 1
-0 0 -0 0
0.041442238 4.3249307 -0.61047626 6
-0.40620515 0.57668507 -0.57333469 6
2.2988203 3.5234144 -0.56656992 1
0.0042343116 0.67017788 -0.58256984 4
-4.4532385 2.1709166 -0.47572845 4
0.45999146 0.66206092 -0.57461572 10
-2.3445687 3.7721238 -0.6020003 1
-0 0 -0 0
0.058041301 4.3411436 -0.61232758 1
-0.40432987 0.57931137 -0.57439178 6
2.3132236 3.5160503 -0.56493378 1
0.0071601328 0.67361075 -0.58545148 4
-4.4167533 2.1740639 -0.47297522 6
0.46797132 0.66731334 -0.58025503 12
-2.3189988 3.7651968 -0.59953558 4
-0 0 -0 0
0.076581463 4.3438907 -0.61229163 2
-0.40281066 0.58307779 -0.57640803 6
2.3332467 3.5138035 -0.56429076 1
0.010522815 0.6804328 -0.59127206 4
-4.4167829 2.1974943 -0.47432384 6
0.47071332 0.66431844 -0.57888776 12
-2.3096876 3.7883232 -0.60162824 8
-0 0 -0 0
0.097294681 4.3510013 -0.61265463 8
-0.39571026 0.57932734 -0.57088834 4
2.3747089 3.5400655 -0.56832355 14
0.014122739 0.67930722 -0.59020525 2
-0 0 -0 0
0.47303012 0.66013509 -0.57661092 12
-2.283262 3.7869382 -0.59976709 8
-0 0 -0 0
0.11980934 4.3490605 -0.61168623 10
-0.39682606 0.58820635 -0.57772613 4
2.3962026 3.5330527 -0.56717932 10
0.018096488 0.67929536 -0.59011042 1
-4.3856106 2.2358198 -0.47486547 1
0 0 -0 0
-2.2522731 3.7812128 -0.59717512 1
-0 0 -0 0
0.14442798 4.3514242 -0.61111605 8
-0.39176321 0.58855665 -0.57607877 2
2.4258215 3.534734 -0.56775427 1
0.022179512 0.67248756 -0.5840801 1
-4.2337937 2.1880181 -0.46099004 1
0.47554341 0.64725351 -0.56848693 1
-2.2334549 3.7992206 -0.5982126 1
-0 0 -0 0
0.17074475 4.3476677 -0.60948408 2
-0.38834614 0.59191883 -0.57732284 1
2.4374259 3.5071163 -0.56387359 1
0.026908265 0.67583883 -0.58688837 1
-4.3038001 2.2568493 -0.47195455 1
0.4880631 0.6553337 -0.57734936 1
-2.2345815 3.8553095 -0.60518175 2
-0 0 -0 0
0.19992861 4.367435 -0.61102384 1
-0.38274845 0.59245324 -0.57577157 1
2.4783785 3.5186582 -0.56654042 14
0.031922292 0.67690897 -0.58769405 1
-4.2799153 2.2792037 -0.47322464 1
0.49134359 0.65042537 -0.57492131 1
-2.2100837 3.8710675 -0.60569471 8
-0 0 -0 0
0.22973192 4.3616872 -0.60910493 4
-0.37440687 0.58912778 -0.57048237 1
2.5062931 3.5082397 -0.56586373 12
0.037262231 0.67794579 -0.58847541 1
-0 0 -0 0
0.49706027 0.64827132 -0.57504469 1
-2.1882789 3.8953128 -0.60749841 6
-0 0 -0 0
0.26090935 4.3556385 -0.607265 4
-0 0 -0 0
2.5389585 3.5015011 -0.56588435 4
0.043334369 0.68572265 -0.59513652 1
-4.099504 2.2569702 -0.46223351 1
0.50755829 0.65172708 -0.58028162 8
-2.1533003 3.8993986 -0.60622382 1
-0 0 -0 0
0.29307577 4.3447957 -0.60503638 1
-0.3699618 0.60329556 -0.57998943 8
2.5642471 3.4814825 -0.56380308 1
0.04875879 0.67872363 -0.58903039 1
-4.1134548 2.3050468 -0.4686527 8
0.50927764 0.64335328 -0.57509714 10
-2.1062531 3.8843973 -0.60190898 1
-0 0 -0 0
0.32708097 4.3439426 -0.60463452 1
-0.36216345 0.60207278 -0.57673818 6
2.5693278 3.4317327 -0.55685949 1
0.055122912 0.68183655 -0.59176064 2
-4.1171079 2.3495815 -0.47390503 10
0.52039289 0.6463117 -0.58019716 12
-2.0903196 3.929985 -0.60690683 10
-0.80241024 0.41594508 -0.54902983 1
0.3613134 4.3308563 -0.60273594 6
-0.35773182 0.60684609 -0.57923204 4
2.6362092 3.4617617 -0.56281376 8
0.061568178 0.68259001 -0.59255069 4
-4.0821643 2.3738606 -0.47458702 1
0.52801079 0.64420587 -0.580899 14
-2.0407932 3.9156435 -0.60273713 1
-0.80839652 0.42775032 -0.55728436 1
0.39628768 4.3144102 -0.60057896 6
-0.35477552 0.61471039 -0.5845902 4
2.6756949 3.4524589 -0.56249088 1
0.068144977 0.68212068 -0.59237123 4
-4.0348983 2.3920207 -0.47364756 1
0.5374552 0.64374542 -0.58326322 16
-2.0126493 3.9450982 -0.60525858 1
-0.81067842 0.43807366 -0.56328678 1
0.43251219 4.299036 -0.59855413 1
-0.34581679 0.61259878 -0.58041143 2
2.718951 3.445497 -0.56256866 10
0.075281955 0.68496263 -0.59512103 6
-4.0239801 2.4330618 -0.47706923 14
0.5383504 0.63269168 -0.57619542 1
-1.9989595 4.0068293 -0.61266458 10
-0 0 -0 0
0.47106895 4.2950554 -0.59802628 10
-0.33787426 0.61253643 -0.57809722 1
2.7630639 3.4374073 -0.56269842 8
0.082280651 0.68433505 -0.59491658 4
-4.0106392 2.4744949 -0.48043209 1
0.55460972 0.63921905 -0.5853616 1
-0 0 -0 0
-0.7431137 0.41933599 -0.52530307 10
0.51121968 4.2935805 -0.59753197 10
-0.33419466 0.6206392 -0.58339173 1
2.7966542 3.4144001 -0.56053615 2
0.089762755 0.685884 -0.59664738 2
-4.0201864 2.5320249 -0.48695821 1
0.56219828 0.63520157 -0.58513463 1
-1.9142958 4.0231476 -0.61054766 1
-0.74822921 0.43172678 -0.53385878 10
0.55068707 4.2768593 -0.5948357 1
-0 0 -0 0
2.820267 3.3778987 -0.55637771 1
0.097139783 0.68510944 -0.59638172 1
-4.0233293 2.5876808 -0.49316162 18
0.57150793 0.63280898 -0.5866484 8
-1.8894094 4.0709314 -0.61526299 8
-0.75303453 0.44440129 -0.54248285 10
0.59113234 4.2611442 -0.59204942 10
-0.32068962 0.62684262 -0.58433855 6
2.8508458 3.348655 -0.55339175 1
0 0 -0 0
-4.0312848 2.6487505 -0.50051409 1
0.58093947 0.63019556 -0.58815241 12
-1.8587041 4.1094847 -0.61855507 4
-0.75861716 0.45805818 -0.55192286 8
0.63527799 4.265502 -0.59205085 10
-0.31366006 0.62995636 -0.58480543 6
2.9383664 3.383769 -0.56114149 1
0.11235095 0.68331754 -0.59576559 1
-4.0490265 2.7184606 -0.50957751 16
0.58794755 0.6246767 -0.58707482 12
-1.8075355 4.1046219 -0.61532515 1
-0.75953966 0.46937343 -0.55820876 1
0.67766994 4.2531624 -0.58973145 2
-0.30343384 0.62681568 -0.57953954 6
2.99297 3.3779328 -0.56214082 10
0.11915964 0.67668402 -0.59053856 2
-4.0714302 2.7937064 -0.51950216 20
0.59678149 0.62079585 -0.58759731 14
-1.7774974 4.150001 -0.61987567 1
-0.7473402 0.4727934 -0.55487388 1
0.7217133 4.2476263 -0.588431 10
-0.29806828 0.634 -0.58390349 4
3.0354366 3.3564272 -0.56046486 8
0.12761867 0.67890769 -0.59313411 4
-4.0714927 2.8557506 -0.52691454 1
0.60665321 0.6176343 -0.58881992 14
-1.7303362 4.1584921 -0.61931211 8
-0.75106996 0.48651886 -0.56347096 1
0.76683354 4.2444425 -0.58760971 6
-0.29054821 0.63698834 -0.5844413 4
3.0914989 3.3481023 -0.56099606 1
0.13579343 0.67877656 -0.59377307 6
-4.073936 2.9212651 -0.53476918 18
0.60525507 0.60291225 -0.57895344 1
-1.6923077 4.191546 -0.62290096 1
-0.75555563 0.50118947 -0.57288831 12
0.81318551 4.2435403 -0.58741558 4
-0.28009129 0.63361216 -0.57921803 1
3.1391163 3.3286927 -0.55968183 12
0.14384291 0.67742366 -0.59342259 8
-4.0618649 2.977942 -0.54074323 16
0.61173618 0.59602886 -0.57659239 1
-1.6355586 4.1803141 -0.62001109 1
-0.7440055 0.50541437 -0.57029569 12
0.86181176 4.2492151 -0.58860385 10
-0.27284434 0.63754427 -0.58070087 1
3.1820719 3.3027253 -0.55751497 8
0.15271625 0.67931205 -0.59597409 1
-4.0557957 3.0406282 -0.54753959 4
0.62000191 0.59070653 -0.57592297 8
-1.5907761 4.200541 -0.62175435 6
-0.73863637 0.5138222 -0.57256019 12
0.90952206 4.2454233 -0.58880472 1
-0 0 -0 0
3.2012572 3.2513623 -0.55119461 1
0 0 -0 0
-4.0589595 3.1123974 -0.55574727 18
0.62912935 0.58601373 -0.57620233 12
-1.5421182 4.212203 -0.62171447 2
-0.7279492 0.51856804 -0.57082176 1
0.95733547 4.2380195 -0.58867711 8
-0.25878522 0.64743346 -0.58555138 6
3.2232528 3.2027168 -0.54552525 1
0.167648 0.66950983 -0.5892427 1
-4.0347514 3.1650002 -0.56006962 1
0.63634586 0.57939345 -0.57497132 14
-1.4914987 4.2193394 -0.62042922 14
-0.72941041 0.53212678 -0.57884175 1
1.0056227 4.2299933 -0.58824515 10
-0.25110331 0.65122145 -0.58702785 6
3.3154321 3.2220788 -0.55177438 1
0.1748428 0.66339242 -0.58484417 1
-3.9873302 3.2002718 -0.56129658 1
0.64816505 0.57676154 -0.57795715 14
-1.4402293 4.2245917 -0.61854756 1
-0.70932674 0.52998555 -0.56989455 1
1.0561185 4.2286177 -0.58805549 4
-0.24286166 0.65383691 -0.58758801 4
3.3687489 3.2015073 -0.55161744 14
0.18443865 0.66596526 -0.58824229 6
-3.9808714 3.269213 -0.56851953 10
0.65539449 0.56982386 -0.57668453 1
-1.3929774 4.2419934 -0.61859763 12
-0.70532829 0.53978866 -0.57397419 12
1.106583 4.2252431 -0.58689582 12
-0.23220019 0.64986604 -0.58237982 2
3.4080544 3.1667254 -0.54914373 10
0.19551669 0.67275208 -0.59553182 8
-3.9492576 3.3183906 -0.57249349 1
0.66079569 0.56122643 -0.57352781 1
-1.3409495 4.2446704 -0.61697799 10
-0.69616807 0.54578471 -0.57396799 12
1.1558383 4.2169251 -0.58558726 2
-0.22270936 0.6490742 -0.58000481 1
3.4613504 3.1444983 -0.54877406 1
0.20354988 0.6683659 -0.59314984 10
-3.8457391 3.306093 -0.56626046 1
0.67109424 0.55663657 -0.57421619 1
-1.2928954 4.259418 -0.61791027 2
-0.68498999 0.55015343 -0.57225174 12
1.2114325 4.2322822 -0.58918542 8
-0.21464092 0.65264046 -0.5813688 1
3.4789262 3.0899177 -0.54224145 1
0.21325338 0.66933864 -0.59560871 10
-0 0 -0 0
0.68041319 0.55110341 -0.57404894 10
-1.241052 4.2622762 -0.61734504 10
-0.67963374 0.55916947 -0.57539529 10
1.2599289 4.2212238 -0.5894295 8
-0.20616291 0.65505934 -0.58171648 8
3.5690458 3.098686 -0.54645973 2
0 0 -0 0
-3.7304618 3.3570244 -0.56709206 1
0.69051909 0.54613954 -0.57494974 14
-1.1959192 4.2905173 -0.61987764 1
-0.66937637 0.56408429 -0.57441562 1
1.3080105 4.2067676 -0.5880456 2
-0.19735411 0.65619069 -0.58117765 8
3.614687 3.0668752 -0.54362541 14
0.22855359 0.65916592 -0.5896998 1
-3.7334297 3.4373832 -0.5765925 6
0.69753951 0.53867024 -0.57352 14
-1.1408285 4.2839274 -0.6172924 1
-0.65721309 0.56720883 -0.5717563 1
1.3525977 4.1804767 -0.58408064 10
-0.19113109 0.66593754 -0.58845311 6
3.6568403 3.031322 -0.54017442 10
0.23425344 0.64920437 -0.58229554 1
-3.6756976 3.4617305 -0.57653379 1
0.70251662 0.5296126 -0.57037973 12
-1.0960728 4.3154707 -0.62037027 6
-0.651667 0.57593596 -0.57483405 1
1.3984094 4.1579189 -0.58033615 1
-0.18019648 0.65909249 -0.58115005 4
3.7067974 3.0016923 -0.53804916 1
0.24335331 0.64890766 -0.58355296 4
-3.6007771 3.4686041 -0.57379794 1
0.71350867 0.5250234 -0.57203674 1
-1.0449541 4.3219523 -0.62000793 4
-0.63673967 0.57622504 -0.56961185 12
1.445532 4.1405177 -0.57784319 10
-0.17236984 0.66320717 -0.58347654 2
3.7072287 2.9327211 -0.5290482 1
0.25494888 0.65492135 -0.59059548 10
-3.5497119 3.4970584 -0.57478666 1
0.72144353 0.51810187 -0.57116169 1
-0.9977923 4.3436875 -0.62192464 10
-0.63109207 0.58476377 -0.57262224 12
